ply
format ascii 1.0
element vertex 711
property float x
property float y
property float z
property float nx
property float ny
property float nz
property float label
element face 0
property list uchar int vertex_indices
end_header
-9.877898 -19.297842 5.037306 -0.122124 -0.812955 -0.569377 0.000000
-12.333591 -18.746149 5.513439 -0.367386 -0.670439 -0.644623 0.000000
-13.041397 -18.650633 5.686230 -0.467441 -0.828888 -0.307317 0.000000
-13.150322 -18.471533 5.436457 -0.590419 -0.734478 -0.334584 0.000000
-17.846930 -15.604276 4.868705 -0.663213 -0.632463 -0.400175 0.000000
-18.756622 -14.605652 5.046313 -0.782485 -0.504021 -0.365622 0.000000
-19.370291 -13.579281 4.961040 -0.760732 -0.522898 -0.384533 0.000000
-24.869318 -5.640832 5.236002 -0.842023 -0.530597 -0.097281 0.000000
-26.978683 -2.114114 5.581182 -0.798357 -0.544895 0.256351 0.000000
-27.282211 -1.419526 5.719625 -0.873302 -0.390252 0.291629 0.000000
-27.502182 -0.889371 5.854010 -0.845540 -0.466398 0.259876 0.000000
-27.917582 -0.062425 6.129870 -0.855533 -0.492497 0.159715 0.000000
-28.649382 2.086754 6.211254 -0.853891 -0.424246 0.301473 0.000000
-29.470291 4.037276 6.175827 -0.872916 -0.331832 0.357638 0.000000
-30.361292 8.222808 5.532856 -0.823749 -0.166787 0.541866 0.000000
-30.286545 9.485733 5.923496 -0.828092 -0.290081 0.479705 0.000000
-30.170214 12.388851 6.526382 -0.555035 -0.182667 0.811523 0.000000
-29.825140 13.412270 7.078653 -0.848611 -0.149256 0.507526 0.000000
-29.708204 14.701286 8.397646 -0.725014 -0.396310 0.563288 0.000000
-29.523291 15.886601 9.208255 -0.754409 -0.175691 0.632455 0.000000
-28.744009 17.582155 12.603588 -0.995547 0.024751 0.090960 0.000000
-27.843138 18.682335 12.701095 -0.503622 0.803678 0.316965 0.000000
-27.502920 18.831520 12.687512 0.118862 0.898832 0.421869 0.000000
-27.577791 19.209841 11.854472 -0.339496 0.856656 0.388437 0.000000
-26.175491 20.542702 10.971191 -0.034293 0.109804 0.993362 0.000000
-25.520494 20.627275 11.099827 -0.323917 0.109514 0.939726 0.000000
-25.106636 21.461252 11.494777 -0.262913 -0.047497 0.963650 0.000000
-25.735861 21.639811 11.605792 0.520795 -0.557322 0.646656 0.000000
-22.373983 22.744743 14.282871 -0.406654 -0.497592 0.766182 0.000000
-19.121016 23.058525 13.574048 0.262361 -0.475862 0.839477 0.000000
-16.471048 20.976908 11.109338 0.516022 -0.380737 0.767308 0.000000
-16.036650 20.978613 10.829610 0.490891 -0.393842 0.777119 0.000000
-15.992332 21.388605 10.976112 0.704212 0.043380 0.708663 0.000000
-15.193410 20.618067 10.119573 0.469737 -0.405408 0.784213 0.000000
-14.524470 20.036528 9.459416 0.470398 -0.353322 0.808634 0.000000
-14.924375 18.719976 9.167712 0.489665 -0.302821 0.817635 0.000000
-15.062383 17.285164 8.827774 0.591218 -0.283355 0.755096 0.000000
-15.229190 16.526663 8.680662 0.598244 -0.271813 0.753805 0.000000
-13.697232 10.617740 6.084774 0.621024 -0.093919 0.778144 0.000000
-12.662640 9.384833 4.978178 0.553709 -0.194586 0.809656 0.000000
-12.517445 7.580463 4.742649 0.365076 -0.000943 0.930977 0.000000
-12.284527 6.612160 4.475546 0.682079 -0.087707 0.726000 0.000000
-11.065498 1.948552 3.155618 0.745064 0.043445 0.665576 0.000000
-10.030473 1.073053 2.022325 0.681267 -0.096968 0.725584 0.000000
-9.570138 0.489072 1.567260 0.561274 0.011681 0.827547 0.000000
-6.968609 0.975584 0.760086 0.177389 0.129688 0.975558 0.000000
-6.367577 1.142544 0.687648 -0.150700 0.003367 0.988574 0.000000
-4.339170 1.313966 0.772871 0.012736 -0.188300 0.982029 0.000000
-3.888150 1.468143 0.813277 -0.065859 -0.193243 0.978938 0.000000
-2.322313 1.833456 0.976821 -0.022746 -0.118760 0.992662 0.000000
-1.632548 1.732752 1.080721 -0.171028 -0.003118 0.985261 0.000000
-0.820865 1.643389 1.087328 0.151771 -0.144174 0.977844 0.000000
1.753533 -0.145342 1.131748 -0.204668 -0.006698 0.978809 0.000000
2.772386 -1.097426 1.071497 0.341562 0.215609 0.914794 0.000000
3.194915 -1.278629 0.903665 0.490321 0.069988 0.868727 0.000000
4.484460 -2.120523 1.531275 -0.616121 0.465807 0.635152 0.000000
6.011106 -1.964547 2.054407 -0.209319 0.108458 0.971814 0.000000
8.974430 -1.748346 2.785373 -0.402166 0.003067 0.915561 0.000000
8.961758 -0.573955 2.649279 -0.311299 0.240318 0.919424 0.000000
9.587390 0.413306 2.677715 -0.610089 0.054501 0.790456 0.000000
9.613374 1.068718 2.649766 -0.607065 0.062980 0.792153 0.000000
10.293552 6.301765 3.832482 -0.585361 -0.110404 0.803221 0.000000
10.345798 7.483650 4.044588 -0.595119 -0.135241 0.792177 0.000000
12.842273 12.179703 7.426569 -0.710247 -0.246886 0.659240 0.000000
13.058784 14.187827 8.187341 -0.531051 -0.020121 0.847101 0.000000
15.323766 17.670607 10.973655 -0.688547 -0.368605 0.624526 0.000000
15.398170 18.710890 11.548047 -0.622685 -0.281931 0.729916 0.000000
18.076431 20.673183 14.343280 -0.672172 -0.392011 0.628102 0.000000
19.217218 20.968328 15.124614 -0.423504 -0.086354 0.901769 0.000000
22.693556 20.718241 15.172371 0.620768 -0.247699 0.743836 0.000000
23.399969 19.906691 14.314529 0.761981 -0.057760 0.645018 0.000000
22.151342 19.898655 15.372252 0.348016 -0.184532 0.919148 0.000000
21.880114 20.239433 15.529633 0.294932 -0.151833 0.943378 0.000000
21.103191 20.310413 15.635384 -0.090535 -0.266563 0.959556 0.000000
21.466690 20.283436 15.629483 0.115380 -0.165097 0.979505 0.000000
18.351952 19.410658 13.916553 -0.551888 -0.384057 0.740216 0.000000
17.260561 16.965147 12.191457 -0.467520 -0.286508 0.836265 0.000000
22.879980 19.901501 14.875175 0.652372 -0.124618 0.747583 0.000000
22.603949 20.259533 15.164617 0.632815 -0.109231 0.766560 0.000000
16.807076 14.736064 11.185166 -0.495105 -0.219287 0.840705 0.000000
16.962141 13.671430 11.072850 -0.658372 -0.062528 0.750091 0.000000
19.389647 7.855692 13.796618 -0.575221 0.002312 0.817995 0.000000
18.598410 5.305380 13.651494 -0.363382 0.180788 0.913931 0.000000
18.071566 3.973728 13.815074 -0.761075 0.565195 0.318307 0.000000
17.478737 3.209084 14.536252 -0.895032 0.374194 -0.242688 0.000000
17.098330 2.815782 15.207629 -0.861482 0.427372 -0.274232 0.000000
17.208427 -0.238822 20.190439 -0.058070 -0.124259 0.990549 0.000000
17.572886 -0.829749 20.146349 -0.081851 -0.112821 0.990238 0.000000
17.983725 -0.549964 20.175720 0.110986 -0.102709 0.988500 0.000000
19.655230 -1.875815 18.907888 0.063952 -0.137434 0.988444 0.000000
21.571203 -3.773488 19.453239 -0.513122 0.474470 0.715251 0.000000
23.802895 -2.131941 20.134787 -0.061954 0.382849 0.921731 0.000000
23.715775 -1.838688 19.981462 -0.128651 0.509260 0.850942 0.000000
24.725082 -1.532163 19.926281 0.349214 -0.545169 0.762129 0.000000
25.059647 -2.308615 18.996965 0.648805 -0.256933 0.716267 0.000000
25.515167 -1.702619 18.457884 0.828368 0.010697 0.560083 0.000000
26.025843 -1.777112 17.492880 0.894139 0.059233 0.443854 0.000000
26.341906 -0.958827 16.167212 0.954212 0.252319 0.160667 0.000000
25.619268 -0.724590 13.348000 0.978329 -0.197204 0.063115 0.000000
26.686501 1.241775 12.286578 0.794368 -0.129729 0.593422 0.000000
27.182846 1.769442 11.726231 0.807828 -0.129963 0.574911 0.000000
28.878561 3.730778 9.443967 0.818070 -0.235300 0.524782 0.000000
28.997742 3.874327 9.275096 0.241150 0.033035 -0.969925 0.000000
28.766962 1.646317 8.475680 0.707791 -0.200287 0.677434 0.000000
28.350470 0.556612 8.472771 0.717756 -0.341885 0.606582 0.000000
28.112875 0.135333 8.603795 0.873266 -0.264829 0.408989 0.000000
27.394358 -1.155644 9.207523 0.856865 -0.366379 0.362696 0.000000
26.615837 -2.827643 9.275018 0.863289 -0.316830 0.392876 0.000000
26.577791 -2.900173 9.544349 0.808292 -0.535720 -0.244270 0.000000
26.451372 -3.254079 9.700919 0.969492 -0.071105 -0.234585 0.000000
26.440409 -3.905990 9.598186 0.566599 -0.116620 0.815700 0.000000
26.255180 -4.700155 9.508382 0.498683 -0.316621 0.806887 0.000000
24.768152 -6.482399 8.700522 0.546345 -0.817177 0.183653 0.000000
24.756769 -5.878485 8.314760 0.774128 -0.502858 -0.384525 0.000000
22.992142 -8.827180 7.787710 0.847112 -0.494908 -0.193563 0.000000
19.981489 -12.880788 7.072504 0.827415 -0.439427 -0.349698 0.000000
18.479914 -14.588504 6.138764 0.716302 -0.568802 -0.404197 0.000000
17.688723 -15.183041 5.924325 0.485311 -0.722996 -0.491680 0.000000
16.463799 -15.948239 5.866602 0.385002 -0.679814 -0.624201 0.000000
10.452814 -19.323977 5.709062 0.251333 -0.833404 -0.492209 0.000000
6.249510 -19.889036 4.351742 0.297497 -0.810971 -0.503807 0.000000
6.067413 -20.260889 4.790389 0.310271 -0.779931 -0.543543 0.000000
3.025858 -22.384287 5.090767 0.741411 -0.654665 0.147386 0.000000
2.571130 -22.958282 5.006098 0.779233 -0.581535 0.233694 0.000000
2.109847 -23.150541 5.687592 0.604157 -0.693382 0.392703 0.000000
1.587862 -23.268061 5.896070 0.022518 -0.963003 0.268548 0.000000
0.156751 -23.122961 5.640051 -0.811746 -0.482761 0.328649 0.000000
-0.105355 -22.797770 5.444261 -0.828877 -0.448364 0.334565 0.000000
-1.060655 -21.387268 3.853916 -0.620098 -0.723744 -0.302775 0.000000
-1.661193 -20.938238 3.728230 -0.445542 -0.826061 -0.345130 0.000000
-3.742459 -20.501389 3.831030 -0.146012 -0.842872 -0.517926 0.000000
-5.345846 -20.078283 3.939641 -0.297690 -0.817914 -0.492338 0.000000
-9.490214 -19.194717 4.803536 -0.126722 -0.814248 -0.566517 0.000000
-10.621835 -19.330145 5.499050 -0.323890 -0.827654 -0.458349 0.000000
-13.716451 -18.155825 5.366614 -0.309418 -0.817683 -0.485444 0.000000
-13.402564 -18.180731 5.178884 -0.477947 -0.791261 -0.381408 0.000000
-18.284204 -15.282063 5.086570 -0.668310 -0.629685 -0.396053 0.000000
-19.647415 -13.091228 4.936955 -0.835470 -0.449349 -0.316346 0.000000
-20.714361 -11.479918 5.059269 -0.738005 -0.614640 -0.278505 0.000000
-22.126852 -10.090147 5.378577 -0.771707 -0.604844 -0.196549 0.000000
-22.502523 -9.661575 5.054780 -0.547892 -0.742211 0.385924 0.000000
-22.741234 -9.407911 5.093046 -0.762095 -0.562909 0.319912 0.000000
-22.743082 -9.206765 5.309749 -0.682328 -0.352995 0.640174 0.000000
-26.462294 -2.884557 5.550915 -0.813612 -0.511459 0.276487 0.000000
-26.809717 -2.223124 5.828880 -0.752845 -0.585516 0.300659 0.000000
-27.139429 -1.619779 5.948287 -0.928970 -0.307966 0.205359 0.000000
-28.327372 1.397425 6.301325 -0.888077 -0.433006 0.154353 0.000000
-28.905373 2.689240 6.247151 -0.883391 -0.373901 0.282524 0.000000
-29.205328 3.579091 6.563005 -0.893446 -0.381954 0.236358 0.000000
-29.368185 3.963487 6.466586 -0.934106 -0.305614 0.184513 0.000000
-30.041048 5.533940 5.609599 -0.924234 -0.273652 0.266282 0.000000
-29.986841 5.675396 5.896036 -0.912342 -0.260092 0.316204 0.000000
-30.206573 7.890666 5.784586 -0.919659 -0.042618 0.390398 0.000000
-30.231447 9.137195 5.924269 -0.916754 -0.088400 0.389548 0.000000
-30.029968 13.311131 6.845453 -0.463500 -0.181990 0.867207 0.000000
-29.769861 13.940608 7.510395 -0.893170 -0.340701 0.293547 0.000000
-29.572760 15.594022 8.648652 -0.608146 -0.131719 0.782821 0.000000
-29.427481 15.986385 9.584687 -0.988762 0.148210 0.019565 0.000000
-29.338150 16.497435 10.545996 0.443176 -0.717176 0.537823 0.000000
-28.841101 17.002502 12.414678 -0.845057 0.527238 -0.088875 0.000000
-28.710146 17.384012 12.952584 -0.973843 -0.118507 0.193869 0.000000
-28.684061 17.861355 12.740415 -0.923229 0.334854 0.188472 0.000000
-28.382727 18.139721 13.145058 -0.665248 0.687525 0.291126 0.000000
-25.841072 20.285736 11.064194 -0.212096 0.181918 0.960167 0.000000
-24.962265 20.851648 11.419093 -0.662173 0.007268 0.749316 0.000000
-24.613083 21.295420 11.733490 -0.652830 -0.116151 0.748546 0.000000
-24.306984 21.583384 11.934669 -0.524336 0.052871 0.849868 0.000000
-23.482956 22.279245 12.671611 -0.790141 -0.205636 0.577401 0.000000
-21.898890 22.891785 14.398273 0.312289 -0.606619 0.731087 0.000000
-20.729158 23.108362 14.125324 0.331561 -0.464722 0.821036 0.000000
-20.218279 23.074821 13.937351 0.185982 -0.481893 0.856265 0.000000
-18.772551 22.826975 13.315822 0.301195 -0.505684 0.808434 0.000000
-16.791746 21.561937 11.600545 0.486494 -0.372543 0.790275 0.000000
-14.905690 20.085922 9.702209 0.468917 -0.353761 0.809302 0.000000
-15.002289 18.233446 9.058280 0.513076 -0.166497 0.842040 0.000000
-15.502326 15.961808 8.678224 0.549249 -0.281819 0.786704 0.000000
-15.485173 15.234200 8.389688 0.571613 -0.312827 0.758550 0.000000
-15.187779 13.242274 7.580607 0.465819 -0.106084 0.878498 0.000000
-15.282083 12.092032 7.501384 0.503472 -0.066640 0.861438 0.000000
-14.484138 11.127591 6.797987 0.646862 -0.081147 0.758278 0.000000
-12.299493 9.090323 4.617031 0.510738 0.037345 0.858925 0.000000
-12.476787 6.379128 4.642922 0.720322 -0.058511 0.691168 0.000000
-12.399524 5.444232 4.560056 0.743101 0.012195 0.669069 0.000000
-9.354627 0.565702 1.428558 0.516416 -0.004315 0.856327 0.000000
-7.389111 0.770201 0.819589 0.029318 -0.090323 0.995481 0.000000
-6.640015 0.891542 0.706214 0.215585 0.114570 0.969741 0.000000
-5.561056 1.244513 0.699961 0.047373 -0.089586 0.994852 0.000000
4.902241 -1.942719 1.772459 -0.422416 0.323391 0.846749 0.000000
7.198557 -2.384404 2.357054 -0.209354 0.108454 0.971807 0.000000
7.774143 -1.664804 2.400413 -0.208405 0.109203 0.971927 0.000000
9.992444 3.446770 3.160909 -0.673726 -0.112828 0.730317 0.000000
10.325986 3.883099 3.514648 -0.658725 -0.059473 0.750030 0.000000
10.108100 4.322035 3.355569 -0.660031 -0.053099 0.749359 0.000000
10.231823 5.711721 3.695510 -0.606854 -0.142483 0.781937 0.000000
10.582221 8.284074 4.414549 -0.630725 -0.227846 0.741803 0.000000
10.750591 8.775237 4.657802 -0.605829 -0.142617 0.782708 0.000000
12.279419 10.423684 6.390340 -0.569927 0.004926 0.821681 0.000000
13.466550 14.306503 8.523858 -0.668229 -0.189370 0.719451 0.000000
14.236301 15.749492 9.338928 -0.669322 -0.147550 0.728173 0.000000
15.183064 17.213778 10.628895 -0.586944 -0.313983 0.746265 0.000000
16.671064 18.810133 12.463509 -0.517013 -0.249085 0.818935 0.000000
16.581879 19.635675 12.697085 -0.557179 -0.366787 0.744996 0.000000
17.728477 20.609810 14.031569 -0.524688 -0.234778 0.818280 0.000000
18.377985 20.685965 14.586913 -0.383343 -0.434530 0.815004 0.000000
20.101099 20.812155 15.514061 -0.386596 -0.178679 0.904775 0.000000
19.993952 20.329454 15.364926 -0.386823 -0.198811 0.900468 0.000000
18.991739 19.449026 14.414271 -0.552715 -0.384141 0.739555 0.000000
18.927540 7.940437 13.402138 -0.673709 0.033790 0.738224 0.000000
18.332830 5.837321 13.368156 -0.442883 0.283700 0.850511 0.000000
18.442915 4.492604 13.786148 -0.761732 0.560768 0.324504 0.000000
17.842508 3.689290 13.687913 -0.870708 0.478883 0.111972 0.000000
16.418709 1.991426 16.164284 -0.838804 0.542911 0.040676 0.000000
16.661856 2.213861 17.886297 -0.970463 0.217955 0.103425 0.000000
18.561483 -0.523820 20.009638 0.435802 -0.148911 0.887639 0.000000
19.722988 -2.490020 18.809504 0.078301 -0.159413 0.984102 0.000000
20.140532 -2.828736 18.784361 -0.237810 -0.073137 0.968554 0.000000
22.934816 -3.040253 19.996695 -0.197181 0.037067 0.979666 0.000000
24.845741 -2.201519 19.284830 0.761612 -0.263508 0.592039 0.000000
25.844849 -2.111880 17.757774 0.832081 -0.221136 0.508665 0.000000
26.292429 -0.790527 15.583263 0.993779 -0.014731 0.110389 0.000000
25.911110 -0.394657 14.866401 0.563127 0.552263 -0.614730 0.000000
25.601103 -0.858090 13.980006 0.992265 -0.117846 -0.039027 0.000000
25.755651 -0.843537 13.027892 0.660862 -0.190430 0.725946 0.000000
26.325813 0.037924 12.527466 0.799687 -0.106548 0.590888 0.000000
28.089340 2.653564 10.400803 0.881464 -0.247057 0.402473 0.000000
29.615028 4.463665 8.689466 0.802108 -0.173648 0.571375 0.000000
29.504038 4.035636 8.690544 0.782554 -0.237102 0.575666 0.000000
28.617083 0.978625 8.356383 0.760997 -0.268100 0.590767 0.000000
26.189125 -3.927421 9.805836 0.790391 -0.240898 0.563250 0.000000
25.842642 -5.425209 9.238194 0.737618 -0.667206 0.103711 0.000000
25.324692 -5.940585 9.042933 0.723957 -0.686441 -0.068437 0.000000
22.167412 -9.965173 7.538103 0.778601 -0.626152 0.041403 0.000000
20.047037 -13.112144 7.518702 0.827608 -0.439390 -0.349287 0.000000
14.713799 -16.527424 5.229178 0.515316 -0.683839 -0.516539 0.000000
13.599187 -17.856010 5.879562 0.496416 -0.688204 -0.529100 0.000000
3.630419 -21.495443 5.326473 0.894415 -0.393080 -0.213331 0.000000
2.859639 -22.528482 5.563137 0.726141 -0.685079 -0.058190 0.000000
1.125432 -23.421183 5.958752 0.517229 -0.853089 0.068648 0.000000
-0.967558 -21.612656 4.386279 -0.839573 -0.542634 -0.025795 0.000000
-3.293931 -20.762310 4.154508 -0.104587 -0.851386 -0.514007 0.000000
-8.270000 -19.008692 4.110363 -0.244359 -0.802927 -0.543689 0.000000
-9.877544 -19.536795 5.472158 -0.190571 -0.887458 -0.419644 0.000000
-14.542933 -17.594641 4.783525 -0.118348 -0.989363 -0.084582 0.000000
-14.778296 -17.679140 5.153254 -0.225700 -0.882206 -0.413246 0.000000
-16.072092 -16.836065 4.660612 -0.426811 -0.783492 -0.451633 0.000000
-16.370636 -17.183611 5.616405 -0.493471 -0.787222 -0.369822 0.000000
-16.912180 -16.619987 5.187711 -0.549934 -0.747842 -0.371893 0.000000
-21.283312 -10.970496 5.266814 -0.642584 -0.719244 -0.264148 0.000000
-22.427553 -9.744066 5.476599 -0.760881 -0.619074 -0.194441 0.000000
-22.755228 -8.940935 5.532524 -0.859135 -0.361158 -0.362563 0.000000
-22.944290 -8.520076 5.316963 -0.760016 -0.552029 -0.342987 0.000000
-23.730154 -7.110342 4.848792 -0.780362 -0.538002 -0.318731 0.000000
-25.681381 -4.357137 5.439689 -0.900309 -0.421682 0.107834 0.000000
-27.651041 -0.497396 6.185038 -0.848475 -0.502436 0.166278 0.000000
-27.948776 0.238077 6.311952 -0.979212 0.106863 0.172407 0.000000
-28.177877 1.184179 6.515617 -0.869679 -0.432803 0.237359 0.000000
-28.578590 2.053244 6.444656 -0.990436 -0.126230 -0.055691 0.000000
-28.994959 3.092414 6.530380 -0.881885 -0.417389 0.219237 0.000000
-29.649984 4.529598 6.065816 -0.942321 -0.192324 0.273940 0.000000
-30.282593 7.367107 5.584570 -0.915521 0.034061 0.400826 0.000000
-30.283417 9.755676 6.017292 -0.836372 0.013534 0.547995 0.000000
-29.473413 14.314586 8.578769 -0.865904 -0.253834 0.431021 0.000000
-29.509153 14.910329 8.886173 0.716158 0.409909 0.564883 0.000000
-29.473328 15.479075 8.856606 -0.949345 0.266758 -0.166086 0.000000
-29.310137 16.226553 10.800842 -0.984206 0.141244 0.106715 0.000000
-29.237440 16.277147 11.337551 -0.978334 0.154223 0.138123 0.000000
-29.025568 16.690718 11.814643 -0.900716 0.309429 0.304902 0.000000
-28.501135 17.877861 13.310328 -0.840542 0.387271 0.378826 0.000000
-28.073915 18.334564 13.218530 -0.502629 0.804985 0.315220 0.000000
-27.376564 18.809608 13.094523 -0.635348 0.770428 -0.052662 0.000000
-27.371702 19.080736 12.317288 -0.471980 0.653421 0.591842 0.000000
-27.381056 19.251741 12.026526 -0.653535 0.739150 0.162939 0.000000
-26.676071 20.072844 11.100429 0.188995 0.180983 0.965156 0.000000
-22.540804 22.466631 13.923916 -0.464333 -0.657803 0.593034 0.000000
-21.028587 22.740206 14.049430 0.351809 -0.437432 0.827577 0.000000
-18.135714 22.200676 12.727170 0.366330 -0.442545 0.818509 0.000000
-15.673295 20.542114 10.377416 0.493746 -0.396751 0.773824 0.000000
-15.221564 17.802345 9.081188 0.479974 -0.221414 0.848882 0.000000
-15.766561 16.365685 8.987826 0.508183 -0.275030 0.816154 0.000000
-15.449615 14.189784 7.982756 0.577877 -0.260581 0.773405 0.000000
-15.572342 13.480693 7.876767 0.579129 -0.177289 0.795725 0.000000
-15.123253 12.659078 7.469508 0.470902 -0.124384 0.873373 0.000000
-15.027579 11.412704 7.275991 0.547763 -0.106679 0.829805 0.000000
-14.750453 11.521793 7.080763 0.684706 -0.098979 0.722067 0.000000
-14.303029 10.609986 6.584097 0.648357 -0.091075 0.755869 0.000000
-13.471541 10.111287 5.822397 0.635412 -0.137186 0.759890 0.000000
-13.082906 10.098350 5.516976 0.540935 -0.113283 0.833401 0.000000
-12.698728 8.568616 4.940781 0.681883 0.141881 0.717569 0.000000
-12.701965 8.123256 4.929024 0.628322 -0.111494 0.769922 0.000000
-12.412633 3.716060 4.789166 0.838610 0.079432 0.538910 0.000000
-11.588246 3.045013 3.685276 0.713866 0.385981 0.584306 0.000000
-11.349804 2.975536 3.343066 0.898566 0.056664 0.435165 0.000000
-11.445125 2.721050 3.510358 0.883648 -0.168046 0.436951 0.000000
-11.352122 2.550254 3.375067 0.760830 0.252547 0.597794 0.000000
-11.118583 1.529764 3.255347 0.727436 0.105080 0.678082 0.000000
-10.855355 1.040017 2.969997 0.768797 0.026616 0.638939 0.000000
-10.315341 0.829783 2.328100 0.769841 0.027061 0.637662 0.000000
-8.960717 0.488532 1.271863 0.282106 0.099137 0.954247 0.000000
-5.695585 0.876779 0.651957 -0.023369 -0.182274 0.982970 0.000000
-3.615004 1.083350 0.740515 -0.014875 -0.236276 0.971572 0.000000
-3.167866 1.495021 0.844881 -0.006354 -0.234584 0.972075 0.000000
0.483234 0.744701 0.891111 -0.068115 -0.046627 0.996587 0.000000
1.232943 0.030090 1.016194 -0.225345 0.033069 0.973718 0.000000
3.010726 -2.063124 1.004202 0.501974 -0.073917 0.861718 0.000000
3.420067 -2.102403 0.853810 -0.095501 0.175722 0.979796 0.000000
3.524453 -2.391320 0.970107 -0.361972 0.370306 0.855482 0.000000
3.785893 -2.983034 1.492701 -0.610370 0.473734 0.634842 0.000000
8.730535 -2.412880 2.721617 -0.326120 0.087218 0.941296 0.000000
9.488136 -1.877222 3.080323 -0.607842 0.026057 0.793630 0.000000
9.770191 -1.249893 3.168802 -0.438234 0.205005 0.875171 0.000000
9.745223 -0.770100 3.011113 -0.570559 0.418450 0.706656 0.000000
9.984365 2.244688 3.030074 -0.736526 -0.084730 0.671081 0.000000
10.483444 6.606008 4.014127 -0.591624 -0.112642 0.798306 0.000000
10.650258 7.787592 4.354964 -0.644882 -0.150822 0.749253 0.000000
11.262398 8.699287 5.134133 -0.731170 -0.165897 0.661716 0.000000
11.317508 9.115219 5.296641 -0.725092 -0.152622 0.671527 0.000000
11.608441 9.654115 5.641755 -0.699688 0.001432 0.714447 0.000000
11.767299 10.013200 5.786044 -0.682349 0.036495 0.730115 0.000000
11.956981 10.157350 6.027393 -0.849412 -0.114631 0.515130 0.000000
12.907088 12.886340 7.758639 -0.707187 -0.244506 0.663402 0.000000
13.950229 15.465675 9.035960 -0.634947 -0.108987 0.764830 0.000000
15.679858 17.662321 11.283900 -0.575817 -0.367217 0.730470 0.000000
16.112953 18.198288 11.898476 -0.626603 -0.352456 0.695085 0.000000
16.146460 18.767935 12.119781 -0.516162 -0.249034 0.819487 0.000000
17.152487 19.592333 13.106156 -0.561159 -0.370602 0.740105 0.000000
17.106970 20.178373 13.370654 -0.562294 -0.381241 0.733813 0.000000
19.352091 20.440531 15.090634 -0.440375 -0.206063 0.873847 0.000000
18.920153 20.258179 14.755483 -0.550382 -0.332091 0.766026 0.000000
18.182049 18.702808 13.412334 -0.559382 -0.392733 0.729967 0.000000
17.547516 18.082947 12.704638 -0.265816 -0.282025 0.921848 0.000000
17.125753 17.990814 12.469821 -0.468548 -0.289525 0.834648 0.000000
16.447001 17.371498 11.793384 -0.625462 -0.335949 0.704227 0.000000
16.346544 14.730655 10.848157 -0.640066 -0.179367 0.747090 0.000000
17.140343 10.573419 11.302387 -0.738321 0.088576 0.668608 0.000000
18.002411 7.507498 12.672726 -0.694182 0.159535 0.701897 0.000000
18.141817 4.554636 13.597682 -0.341346 0.108465 0.933658 0.000000
16.616329 1.453404 18.947260 -0.814257 0.494920 0.303381 0.000000
16.226988 0.128296 19.685902 -0.873536 0.269462 0.405370 0.000000
16.187540 -0.240707 19.772146 -0.833062 0.116964 0.540672 0.000000
16.453888 -0.103685 20.018206 -0.502642 0.003414 0.864488 0.000000
16.697397 -0.514261 20.055071 -0.325941 -0.202299 0.923492 0.000000
18.201004 -1.111500 20.059786 0.318650 -0.164266 0.933530 0.000000
18.474882 -1.810714 19.600557 0.866661 -0.217504 0.448988 0.000000
18.701515 -2.191943 19.237864 0.727570 0.047798 0.684366 0.000000
23.458008 -2.482733 20.152689 -0.434955 -0.004111 0.900443 0.000000
24.138733 -2.281302 20.086884 0.483902 0.019244 0.874911 0.000000
26.455971 -1.149552 16.155289 -0.248322 0.968634 -0.009171 0.000000
26.329376 -0.988346 15.803741 0.657652 0.585483 -0.474028 0.000000
26.325865 -0.972925 15.089406 0.998321 -0.053691 0.021737 0.000000
26.102598 -0.786710 14.724799 0.616902 0.451328 -0.644775 0.000000
25.550482 -1.118194 13.572314 0.991245 -0.121412 -0.051879 0.000000
25.734838 -1.395650 12.895092 0.673676 -0.217078 0.706427 0.000000
25.958189 -0.120282 12.979713 0.760511 -0.111584 0.639665 0.000000
27.362160 1.294291 11.263802 0.880943 -0.204081 0.426954 0.000000
28.426102 3.046464 9.895862 0.896536 -0.246926 0.367765 0.000000
27.734398 -0.343714 9.068072 0.859769 -0.263534 0.437433 0.000000
27.178421 -1.878092 9.229791 0.854921 -0.132625 0.501519 0.000000
27.029062 -2.181650 9.229672 0.678158 -0.719882 0.147888 0.000000
26.758127 -2.588290 9.560753 0.891378 -0.439480 -0.110916 0.000000
25.715094 -5.480190 9.585258 0.711179 -0.665552 0.226418 0.000000
25.174469 -6.151838 9.342866 0.746126 -0.653596 -0.126921 0.000000
24.207418 -6.787941 8.295211 0.820125 -0.486440 -0.301282 0.000000
23.032034 -8.911506 8.169267 0.847478 -0.492000 -0.199292 0.000000
21.679092 -10.767960 8.234769 0.736690 -0.620782 -0.268176 0.000000
20.441336 -12.105286 7.357790 0.877067 -0.191507 -0.440544 0.000000
19.325537 -14.392770 7.640690 0.780118 -0.534021 -0.325940 0.000000
16.005463 -16.568800 6.341041 0.350027 -0.749083 -0.562455 0.000000
15.221692 -17.086290 6.416544 0.490772 -0.676826 -0.548680 0.000000
14.605187 -17.089577 5.848234 0.511180 -0.675431 -0.531496 0.000000
3.800650 -21.126638 5.068979 0.428349 -0.828803 -0.360004 0.000000
3.477186 -21.850128 5.859397 0.834473 -0.550611 -0.021941 0.000000
0.794904 -23.455421 5.935727 -0.264306 -0.904707 0.334138 0.000000
-4.295418 -20.619884 4.267682 -0.259561 -0.826208 -0.500009 0.000000
-8.940871 -19.479532 5.037199 -0.192018 -0.783575 -0.590880 0.000000
-11.148646 -19.337126 5.870073 -0.305876 -0.829939 -0.466520 0.000000
-11.435925 -19.068155 5.551070 -0.245780 -0.864666 -0.438114 0.000000
-12.066452 -18.990820 5.771004 -0.263622 -0.859631 -0.437651 0.000000
-14.508235 -17.886169 5.384005 -0.277188 -0.832366 -0.479930 0.000000
-15.328544 -17.503832 5.152709 -0.330793 -0.822033 -0.463506 0.000000
-15.877518 -17.224051 5.148842 -0.426909 -0.782989 -0.452412 0.000000
-17.367949 -16.330786 5.368902 -0.614983 -0.712779 -0.337256 0.000000
-18.999586 -14.560166 5.641684 -0.808359 -0.546819 -0.218049 0.000000
-21.816263 -10.565289 5.749496 -0.750937 -0.639601 -0.164331 0.000000
-22.520393 -9.631719 5.702058 -0.891976 0.257898 0.371305 0.000000
-24.653009 -6.121268 5.826837 -0.846560 -0.514754 -0.135520 0.000000
-24.967836 -5.758957 6.291759 -0.829669 -0.520914 -0.200741 0.000000
-26.271677 -3.045034 5.981403 -0.894265 -0.442512 0.066881 0.000000
-29.967813 6.433397 6.422465 -0.924187 -0.167705 0.343152 0.000000
-30.001776 6.935453 6.374915 -0.973149 0.047131 0.225301 0.000000
-30.023569 8.141378 6.396795 -0.967463 -0.079477 0.240206 0.000000
-30.062918 8.852548 6.420271 -0.967735 -0.042822 0.248306 0.000000
-30.044554 11.606095 6.575079 -0.833634 -0.067873 0.548131 0.000000
-29.932945 12.027748 6.734661 -0.802973 0.031921 0.595160 0.000000
-29.494909 13.474332 7.936556 -0.927218 -0.288426 0.238910 0.000000
-29.486824 15.083038 8.991315 -0.998924 -0.030214 0.035193 0.000000
-29.495409 15.029843 9.392259 -0.996911 -0.031844 -0.071795 0.000000
-29.471512 15.610597 9.717425 -0.992374 0.117189 0.038213 0.000000
-29.455690 15.526947 10.150311 -0.990777 0.103061 0.087975 0.000000
-29.387787 15.729786 10.659103 -0.990190 0.104687 0.092548 0.000000
-29.287092 15.999274 11.636489 -0.795756 0.445613 -0.410125 0.000000
-28.430901 17.684698 13.499931 -0.777931 -0.005821 0.628322 0.000000
-27.837664 18.348000 13.787183 -0.629276 0.766822 0.126469 0.000000
-27.548849 18.578444 13.934812 -0.711186 0.693218 0.116893 0.000000
-27.408875 18.741096 13.740524 -0.656067 0.748868 0.093664 0.000000
-27.340555 18.836508 13.482471 -0.666934 0.737179 0.108472 0.000000
-27.098043 19.034670 12.834027 -0.667583 0.743446 -0.040268 0.000000
-27.127487 19.147314 12.404129 -0.360701 0.683444 0.634665 0.000000
-27.136843 19.318319 12.113366 0.199386 0.978527 -0.052256 0.000000
-24.592157 20.813046 11.727367 -0.620775 0.005238 0.783971 0.000000
-23.814295 21.583349 12.275397 -0.629782 0.087752 0.771799 0.000000
-23.669001 22.097738 12.385471 -0.715874 -0.140429 0.683962 0.000000
-23.139791 22.075953 12.904286 -0.511737 -0.339881 0.789054 0.000000
-22.348841 22.123667 13.722394 -0.531616 -0.596863 0.600949 0.000000
-19.461967 23.064718 13.700490 0.331767 -0.465942 0.820262 0.000000
-18.632338 22.253119 12.946938 0.301857 -0.447474 0.841813 0.000000
-17.758581 21.959803 12.374558 0.465038 -0.474883 0.747145 0.000000
-15.174164 19.382757 9.578465 0.504097 -0.318107 0.802928 0.000000
-15.726883 14.596767 8.335378 0.591082 -0.273105 0.758970 0.000000
-12.738667 7.296497 4.901042 0.676605 0.079661 0.732025 0.000000
-12.556918 5.836718 4.718934 0.725556 0.039640 0.687021 0.000000
-12.422658 4.751179 4.629732 0.758916 0.072296 0.647162 0.000000
-12.436359 3.340274 4.951468 0.868490 0.223469 0.442479 0.000000
-11.305438 1.940337 3.464997 0.850117 0.059527 0.523219 0.000000
-9.664870 0.127408 1.708315 0.655548 0.241119 0.715625 0.000000
-8.054085 0.469023 0.959826 0.434923 0.164263 0.885359 0.000000
-6.083143 0.861551 0.663341 0.094109 -0.143837 0.985116 0.000000
-2.752373 1.391682 0.861363 -0.137148 -0.178919 0.974258 0.000000
-1.993805 1.544235 0.995784 -0.287716 -0.046208 0.956600 0.000000
-1.258419 1.518593 1.099305 0.035622 -0.221850 0.974430 0.000000
-0.790717 1.302004 1.071742 0.068106 0.055901 0.996111 0.000000
0.231530 0.372823 0.917466 0.175205 0.045144 0.983496 0.000000
3.241291 -3.022395 1.165475 -0.393823 0.463409 0.793823 0.000000
3.362049 -3.302160 1.386897 -0.385845 0.459516 0.799980 0.000000
8.736984 -3.764793 3.040977 -0.488425 0.307306 0.816703 0.000000
9.973217 -0.169449 3.030258 -0.684595 0.071826 0.725376 0.000000
10.171775 2.933082 3.285643 -0.713506 -0.027268 0.700118 0.000000
10.180042 4.841052 3.499690 -0.695790 -0.169493 0.697960 0.000000
12.236997 9.956424 6.316505 -0.651297 -0.108642 0.751006 0.000000
12.498197 10.485602 6.567735 -0.669485 -0.046552 0.741366 0.000000
12.830237 10.962452 7.031123 -0.774813 -0.206786 0.597414 0.000000
13.003299 11.371494 7.355399 -0.730624 -0.173125 0.660466 0.000000
13.181643 13.236346 8.073438 -0.524060 -0.231779 0.819536 0.000000
14.691678 15.592317 9.671669 -0.573013 -0.179722 0.799598 0.000000
15.006828 16.618820 10.241832 -0.587217 -0.309321 0.747995 0.000000
15.687515 18.370924 11.633286 -0.573731 -0.337190 0.746416 0.000000
17.787821 20.152811 13.876111 -0.557728 -0.378612 0.738642 0.000000
16.164734 17.030005 11.382590 -0.621904 -0.334986 0.707828 0.000000
16.084600 15.878307 10.919357 -0.614764 -0.200957 0.762681 0.000000
16.998377 9.686412 11.240682 -0.744002 0.040772 0.666933 0.000000
18.831249 6.565562 13.423813 -0.536216 0.019896 0.843846 0.000000
17.663437 18.858921 13.107396 -0.536223 -0.401593 0.742420 0.000000
16.674494 2.150580 15.179173 -0.760353 0.615372 -0.207799 0.000000
16.184210 1.642137 16.416918 -0.801838 0.597507 0.006434 0.000000
16.141802 1.387318 17.418968 -0.831259 0.529445 0.169398 0.000000
16.363939 1.511876 18.043930 -0.810300 0.550013 0.202235 0.000000
16.288084 0.989804 18.876778 -0.784722 0.520119 0.337176 0.000000
16.071024 0.296873 19.181030 -0.890756 0.284965 0.354046 0.000000
16.794331 -1.344369 19.896759 -0.335187 -0.220979 0.915870 0.000000
18.706047 -2.728053 19.263178 0.726288 0.029995 0.686736 0.000000
20.816191 -3.683341 18.995348 -0.327945 0.278676 0.902658 0.000000
21.143583 -3.806680 19.191292 -0.457112 0.474579 0.752212 0.000000
21.303167 -3.976796 19.418625 -0.435187 0.644406 0.628772 0.000000
24.424219 -2.071548 19.889015 0.662313 0.042163 0.748040 0.000000
25.397171 -2.280411 18.407282 0.903441 -0.289914 0.315823 0.000000
25.549356 -2.382946 18.053209 0.723737 -0.304690 0.619167 0.000000
25.980125 -2.452960 17.205839 0.820105 -0.484892 0.303821 0.000000
26.483347 -1.382832 16.914101 -0.347462 0.774653 0.528377 0.000000
26.836685 -1.280214 15.967896 0.396239 0.898952 -0.186762 0.000000
27.235464 0.544398 11.157097 0.881809 -0.216824 0.418807 0.000000
27.788187 1.815098 10.595748 0.900006 -0.183202 0.395508 0.000000
29.205332 3.952700 9.021876 0.690680 -0.341409 0.637496 0.000000
29.076479 3.043903 8.770654 0.772978 -0.360368 0.522150 0.000000
28.510061 2.540027 9.413560 0.878232 -0.238374 0.414591 0.000000
28.406183 1.708481 9.084792 0.866881 -0.305553 0.393897 0.000000
27.089432 -1.686664 9.500367 0.907629 -0.225113 0.354307 0.000000
26.308182 -3.412761 10.092249 0.790234 -0.415220 0.450691 0.000000
26.322596 -3.573810 9.862251 0.864204 -0.462278 0.198622 0.000000
23.875814 -7.364687 8.232906 0.839517 -0.425419 -0.337977 0.000000
23.596693 -8.042763 8.499295 0.866728 -0.482534 -0.126269 0.000000
22.406736 -9.737472 7.979284 0.759840 -0.637262 -0.128606 0.000000
21.638437 -11.213132 8.798379 0.792094 -0.469177 -0.390461 0.000000
21.136944 -11.657303 8.358841 0.739855 -0.538453 -0.403339 0.000000
20.424810 -12.450062 7.676739 0.873825 -0.376612 -0.307559 0.000000
19.877487 -13.735827 7.964682 0.823363 -0.481077 -0.301063 0.000000
19.092470 -14.325553 7.048485 0.762373 -0.496489 -0.415074 0.000000
18.187826 -15.088458 6.404776 0.633726 -0.661170 -0.401554 0.000000
9.520006 -19.838196 6.142650 0.238025 -0.859616 -0.452111 0.000000
6.509827 -20.439251 5.373805 0.364487 -0.810800 -0.457988 0.000000
3.155778 -22.254042 5.950640 0.719360 -0.691102 -0.069986 0.000000
2.279949 -22.943939 5.936447 0.473337 -0.836031 0.277498 0.000000
-0.527738 -22.247536 5.525793 -0.800317 -0.599354 0.016340 0.000000
-2.065666 -21.039919 4.300303 -0.244012 -0.890522 -0.383964 0.000000
-4.594754 -20.999615 5.015421 -0.203490 -0.804067 -0.558630 0.000000
-7.567702 -19.653616 4.626882 -0.349317 -0.730774 -0.586470 0.000000
-8.361714 -19.392206 4.697458 -0.243878 -0.788461 -0.564671 0.000000
-10.277610 -19.576742 5.755476 -0.219512 -0.883282 -0.414280 0.000000
-13.554231 -18.671667 6.291668 -0.413216 -0.814098 -0.408041 0.000000
-20.246565 -12.378522 5.327880 -0.797377 -0.471835 -0.376246 0.000000
-23.270990 -8.212951 5.773267 -0.869952 -0.442527 -0.217608 0.000000
-23.716127 -7.507982 5.861483 -0.806012 -0.552746 -0.211700 0.000000
-23.982508 -7.003317 5.465614 -0.787109 -0.592422 -0.171744 0.000000
-24.762064 -6.286911 6.643914 -0.810053 -0.469940 -0.350671 0.000000
-25.808329 -4.007284 5.894005 -0.898423 -0.434755 0.061836 0.000000
-28.031250 0.547171 6.609493 -0.865959 -0.196177 -0.460032 0.000000
-28.300680 1.333830 6.682958 -0.596407 -0.432243 -0.676361 0.000000
-28.551325 1.698954 6.772259 -0.853518 -0.389925 -0.345639 0.000000
-29.178581 3.537295 6.809036 -0.838920 -0.104595 -0.534109 0.000000
-29.633238 4.925369 6.570150 -0.941587 -0.261975 0.211621 0.000000
-29.866289 9.444503 6.982290 -0.934543 0.037804 0.353835 0.000000
-30.090910 10.375183 6.370399 -0.860116 -0.030408 0.509192 0.000000
-30.131918 10.693874 6.287010 -0.926488 0.105012 0.361375 0.000000
-30.075279 11.152381 6.431571 -0.819166 -0.150113 0.553564 0.000000
-29.712013 12.346775 7.158327 -0.929410 -0.015702 0.368714 0.000000
-29.434036 13.014932 7.800522 -0.850191 0.039584 0.524983 0.000000
-29.331085 13.503041 8.402267 -0.864292 -0.239326 0.442406 0.000000
-29.395689 14.375463 8.938760 -0.944760 -0.257542 -0.202733 0.000000
-29.127884 16.365549 12.062144 -0.897343 0.436742 0.063496 0.000000
-28.579966 17.470051 13.279012 -0.798865 -0.269874 0.537571 0.000000
-27.935684 18.153860 14.107169 -0.777682 0.350092 0.522156 0.000000
-26.908945 19.278658 12.888747 -0.875806 0.438763 -0.201125 0.000000
-27.057547 19.384119 11.914886 -0.300546 0.895688 0.327741 0.000000
-25.858017 19.888399 11.363498 -0.089276 0.901917 0.422583 0.000000
-25.163618 20.445467 11.301417 -0.547881 0.124378 0.827259 0.000000
-22.882086 22.201401 13.198415 -0.701620 -0.507691 0.499979 0.000000
-22.905121 22.515081 13.535636 -0.701575 -0.563183 0.436597 0.000000
-21.626358 22.666483 14.190190 0.153754 -0.468656 0.869897 0.000000
-19.135000 21.860132 12.916049 0.297178 -0.450880 0.841661 0.000000
-16.187508 14.547717 8.564738 0.292051 -0.262897 0.919560 0.000000
-16.024118 12.821355 8.074249 0.602648 -0.159471 0.781911 0.000000
-15.798386 12.015889 7.809965 0.530972 -0.059245 0.845316 0.000000
-12.943974 9.397983 5.282036 0.958249 -0.156280 0.239449 0.000000
-12.871193 8.984725 5.102885 0.743340 -0.055690 0.666591 0.000000
-12.748506 6.835746 4.912605 0.614453 -0.030636 0.788359 0.000000
-12.153610 3.042411 4.546044 0.869690 0.221010 0.441356 0.000000
-11.683567 2.790528 3.852568 0.604938 -0.207353 0.768800 0.000000
-11.432213 2.225190 3.586444 0.757297 0.175330 0.629095 0.000000
-11.109604 0.566989 3.301490 0.774234 0.042267 0.631486 0.000000
-10.908208 0.216630 3.094311 0.777355 0.162916 0.607600 0.000000
-8.832373 0.223843 1.267051 0.266413 0.128328 0.955278 0.000000
-1.228271 1.177208 1.083720 -0.026077 0.079439 0.996499 0.000000
-0.631248 1.011600 1.056799 0.142557 -0.000628 0.989786 0.000000
-0.105606 0.543493 0.970401 0.179476 0.044527 0.982754 0.000000
1.823319 -1.017147 1.198599 -0.182694 0.082278 0.979721 0.000000
1.568965 -1.627451 1.278303 -0.267097 0.311443 0.911955 0.000000
1.842791 -1.968653 1.427447 -0.088795 0.201444 0.975467 0.000000
2.234566 -1.775694 1.374033 0.208913 0.143074 0.967412 0.000000
2.277964 -2.311547 1.439202 0.234920 0.122189 0.964304 0.000000
2.631595 -2.417774 1.237203 0.626194 -0.004377 0.779655 0.000000
4.265288 -2.992392 1.787193 -0.242405 0.128120 0.961678 0.000000
10.232385 1.177095 3.274748 -0.796131 0.003397 0.605115 0.000000
10.913190 6.226995 4.340226 -0.690337 -0.114592 0.714356 0.000000
11.040172 7.130735 4.603704 -0.687516 -0.109596 0.717852 0.000000
17.030113 12.735378 11.104869 -0.652809 0.016514 0.757342 0.000000
17.120476 8.076287 11.652954 -0.696871 0.177494 0.694886 0.000000
18.479193 7.205472 13.109609 -0.534788 0.149737 0.831613 0.000000
17.592554 5.532632 13.048457 -0.549658 0.299898 0.779703 0.000000
20.284105 -3.584141 18.840660 0.373264 0.604983 0.703328 0.000000
21.442400 -4.262131 19.529623 -0.521301 -0.017308 0.853198 0.000000
22.922943 -3.442200 20.142805 -0.119936 0.491117 0.862797 0.000000
26.320826 -1.818830 17.080292 0.071324 0.324525 0.943184 0.000000
26.536926 -1.601100 17.098822 -0.389689 -0.052049 0.919475 0.000000
27.154526 -1.305117 16.169062 0.245308 0.778643 -0.577528 0.000000
26.799643 -1.491305 15.701165 0.346393 0.528987 -0.774716 0.000000
26.406397 -1.390163 15.525089 0.827657 0.316246 -0.463652 0.000000
25.767355 -1.240524 14.255222 0.809408 0.277777 -0.517396 0.000000
28.764734 3.002047 9.202613 0.771770 -0.361018 0.523486 0.000000
28.019495 1.156331 9.584298 0.898831 -0.258095 0.354245 0.000000
27.661356 0.045806 9.550502 0.887055 -0.323014 0.329842 0.000000
29.123199 3.594384 8.989251 0.784351 -0.099017 0.612364 0.000000
26.617294 -2.781147 9.947321 0.890810 -0.229649 0.392071 0.000000
26.041864 -4.518281 9.737790 0.764215 -0.280399 0.580820 0.000000
24.543703 -6.862807 9.025315 0.682222 -0.594037 -0.426256 0.000000
23.736641 -8.190117 9.146432 0.828754 -0.464937 -0.311449 0.000000
22.309761 -10.079144 8.530931 0.779017 -0.555505 -0.290770 0.000000
19.217354 -14.782849 8.113376 0.752926 -0.605404 -0.258048 0.000000
17.287964 -15.694698 6.203137 0.548959 -0.641931 -0.535320 0.000000
17.029549 -16.459352 6.966681 0.462398 -0.759671 -0.457262 0.000000
16.418444 -16.741047 6.852711 0.411279 -0.769970 -0.487848 0.000000
10.123824 -19.965614 6.740490 0.244633 -0.877817 -0.411815 0.000000
8.193040 -19.943438 5.609884 0.255604 -0.861206 -0.439307 0.000000
7.506265 -20.228384 5.723537 0.303200 -0.829075 -0.469792 0.000000
3.549988 -21.856033 6.407494 0.680010 -0.696434 -0.229271 0.000000
1.380558 -23.282209 6.152380 0.424255 -0.905374 -0.017514 0.000000
-0.160468 -22.622355 5.884840 -0.635966 -0.771702 -0.004839 0.000000
-1.460685 -21.405321 4.646605 -0.366865 -0.852449 -0.372479 0.000000
-1.295705 -21.336832 4.278620 -0.413697 -0.852026 -0.320791 0.000000
-2.758539 -21.140099 4.662992 -0.112628 -0.847049 -0.519445 0.000000
-5.941044 -20.370310 4.797764 -0.301754 -0.822677 -0.481817 0.000000
-7.045172 -20.169325 5.111185 -0.278677 -0.826212 -0.489604 0.000000
-12.421563 -19.125505 6.358563 -0.316813 -0.899094 -0.302092 0.000000
-13.977043 -18.467665 6.229627 -0.345442 -0.874939 -0.339339 0.000000
-19.526987 -14.057487 6.189840 -0.772493 -0.576771 -0.265687 0.000000
-20.195396 -13.256690 6.560353 -0.815028 -0.499237 -0.294096 0.000000
-20.597658 -12.478204 6.327325 -0.812327 -0.509465 -0.283851 0.000000
-22.597212 -9.348081 5.496943 -0.937685 -0.222969 0.266518 0.000000
-22.711433 -9.177258 5.741978 -0.815175 -0.489595 -0.309492 0.000000
-25.411215 -4.986059 6.481499 -0.938361 -0.302537 -0.167185 0.000000
-27.394587 -0.945395 6.338918 -0.894836 -0.410254 -0.175956 0.000000
-28.679747 2.205122 6.748251 -0.843013 0.139431 -0.519507 0.000000
-28.878759 2.861790 6.804710 -0.737408 -0.468191 -0.486853 0.000000
-29.057028 3.136397 6.828442 -0.798667 -0.439889 -0.410644 0.000000
-29.760214 5.429960 6.548486 -0.957794 -0.206500 0.199969 0.000000
-29.727654 5.900042 7.079961 -0.962784 -0.134186 0.234608 0.000000
-29.675154 13.024185 7.296536 -0.926826 -0.039978 0.373358 0.000000
-28.971170 16.630632 12.481346 -0.966764 0.217055 -0.135107 0.000000
-28.181192 17.823641 13.838420 -0.835088 0.027719 0.549418 0.000000
-27.392937 19.111395 13.501595 0.521469 0.575250 0.630204 0.000000
-27.437424 19.248812 13.652308 -0.395785 0.384083 -0.834167 0.000000
-27.115877 19.337990 13.413295 -0.799186 0.124187 -0.588115 0.000000
-26.923584 19.335468 13.099338 -0.846040 0.522985 -0.103453 0.000000
-26.640829 19.452318 12.623784 -0.219330 0.772895 -0.595423 0.000000
-26.902573 19.135431 13.385369 -0.208247 0.576530 0.790093 0.000000
-26.730309 19.445387 12.197719 -0.555462 0.757242 0.343578 0.000000
-26.631996 19.656981 11.526441 -0.245320 0.805799 0.538986 0.000000
-27.445898 19.299294 13.613238 0.512096 -0.554050 0.656343 0.000000
-26.374334 19.812746 11.360413 -0.176563 0.878053 0.444801 0.000000
-24.974630 20.004827 11.505170 -0.560974 0.168429 0.810519 0.000000
-24.310629 20.316347 11.927335 -0.593498 -0.039812 0.803850 0.000000
-16.651836 20.289587 10.942412 0.584124 -0.303489 0.752790 0.000000
-15.655253 19.281067 9.859101 0.557913 -0.309044 0.770211 0.000000
-16.071402 17.833010 9.647992 0.588854 -0.247649 0.769364 0.000000
-15.652607 17.447718 9.243678 0.505768 -0.213267 0.835892 0.000000
-16.276711 16.049467 9.144254 0.371016 -0.322474 0.870837 0.000000
-16.444502 15.332066 8.933389 0.335909 -0.359094 0.870756 0.000000
-13.094958 9.378221 5.425471 0.543247 -0.115964 0.831526 0.000000
-13.186257 7.942754 5.356754 0.715409 -0.059840 0.696138 0.000000
-12.923188 7.839289 5.087418 0.688326 -0.064275 0.722548 0.000000
-12.614762 4.412892 4.955678 0.831685 0.132197 0.539281 0.000000
-12.102509 2.655386 4.514090 0.903829 0.042408 0.425787 0.000000
-11.839789 2.529009 4.059801 0.818330 0.088891 0.567832 0.000000
-11.557040 1.607926 3.872800 0.836369 -0.003232 0.548158 0.000000
-11.546150 1.352432 3.850009 0.837946 -0.019440 0.545408 0.000000
-11.095230 -0.000882 3.342098 0.747985 0.015769 0.663528 0.000000
-7.554524 0.453229 0.863528 0.055330 0.207671 0.976633 0.000000
-4.720461 0.934228 0.692162 -0.008866 -0.270238 0.962753 0.000000
-1.446705 0.924395 1.074195 -0.136087 -0.075451 0.987820 0.000000
2.685718 -2.980162 1.203164 0.634161 0.043681 0.771967 0.000000
2.887962 -3.328868 1.188854 -0.204359 0.485644 0.849934 0.000000
3.700795 -3.579327 1.710256 -0.317356 0.161672 0.934424 0.000000
5.070998 -3.313412 2.000750 -0.210674 0.107201 0.971661 0.000000
6.552135 -4.360688 2.601137 -0.261345 0.341613 0.902773 0.000000
7.958990 -3.845502 2.811303 -0.259248 0.345495 0.901900 0.000000
8.849420 -3.989083 3.183420 -0.272080 0.264543 0.925197 0.000000
8.932942 -3.051770 2.907933 -0.514657 0.270004 0.813773 0.000000
10.120547 -1.209722 3.491868 -0.851466 0.188700 0.489284 0.000000
10.482178 0.684209 3.674928 -0.828159 0.085865 0.553877 0.000000
10.478095 5.047289 3.794673 -0.609314 -0.088060 0.788024 0.000000
11.338588 7.274081 4.933899 -0.766904 -0.126199 0.629231 0.000000
11.758167 9.083253 5.732198 -0.691703 -0.113269 0.713244 0.000000
12.819957 10.328972 6.889790 -0.744663 -0.024315 0.666997 0.000000
13.347043 11.187851 7.627203 -0.553556 -0.206474 0.806811 0.000000
13.568268 12.645585 8.172917 -0.570535 -0.212466 0.793315 0.000000
14.048939 13.669296 8.858715 -0.640081 -0.237784 0.730586 0.000000
14.009418 14.913887 9.041030 -0.623531 -0.028239 0.781289 0.000000
15.130203 16.129576 10.167786 -0.616743 -0.244162 0.748340 0.000000
15.582395 15.564551 10.401859 -0.680507 -0.194054 0.706579 0.000000
15.912178 13.601336 10.236440 -0.607079 -0.155733 0.779232 0.000000
16.426592 9.667725 10.600684 -0.748296 0.035197 0.662431 0.000000
16.635550 8.219470 11.084076 -0.753661 0.180046 0.632123 0.000000
16.739740 1.996687 14.416354 -0.748386 0.640336 -0.172882 0.000000
15.709971 0.808613 16.244965 -0.904242 0.426949 -0.007867 0.000000
15.870293 1.131365 15.899652 -0.898485 0.438668 -0.017171 0.000000
15.805083 0.833859 17.206018 -0.908265 0.400316 0.121667 0.000000
16.079638 -0.725269 19.614759 -0.865188 -0.063076 0.497464 0.000000
19.183004 -3.213855 19.038363 0.372964 0.290584 0.881169 0.000000
19.556990 -3.165846 18.851374 0.428415 0.314038 0.847255 0.000000
22.429276 -4.294306 20.131369 -0.371982 0.238388 0.897107 0.000000
22.351622 -3.713138 19.972626 -0.387123 0.155410 0.908836 0.000000
23.435043 -3.545709 20.228960 0.030728 0.501788 0.864445 0.000000
23.446915 -3.143762 20.082850 -0.123254 0.023104 0.992106 0.000000
23.647348 -2.916004 20.166443 -0.344763 -0.215799 0.913548 0.000000
24.022192 -2.854850 20.138342 0.478230 -0.056438 0.876419 0.000000
24.596540 -2.516740 19.545776 0.881268 -0.151752 0.447592 0.000000
26.554647 -2.066871 17.340639 -0.341855 0.672504 0.656409 0.000000
27.117514 -1.809499 15.683331 0.430533 0.302941 -0.850217 0.000000
26.311918 -1.624575 15.365501 0.173090 0.167635 -0.970535 0.000000
26.210413 -1.558882 15.288404 0.927188 -0.126078 -0.352741 0.000000
26.026686 -1.183011 14.530005 0.523250 0.080076 -0.848408 0.000000
25.386057 -1.726439 13.372865 0.935817 -0.352097 0.016549 0.000000
26.396608 -0.849838 12.188891 0.838271 -0.180111 0.514647 0.000000
26.785807 -0.524969 11.594029 0.889485 -0.195577 0.412997 0.000000
27.301773 -0.265441 10.277504 0.908768 -0.318900 0.269152 0.000000
26.799238 -2.183079 9.886818 0.891175 -0.232697 0.389434 0.000000
25.903687 -4.898594 9.788944 0.859523 -0.228630 0.457110 0.000000
25.411552 -5.850304 9.675879 0.827509 -0.554548 0.087774 0.000000
24.811003 -6.695415 9.415826 0.846361 -0.517036 -0.127856 0.000000
24.199717 -7.616444 9.469375 0.748237 -0.533139 -0.394848 0.000000
20.741148 -12.380466 8.274507 0.794518 -0.366313 -0.484311 0.000000
20.382902 -13.207294 8.433126 0.801016 -0.484372 -0.351791 0.000000
13.609665 -18.280991 6.492923 0.485427 -0.738999 -0.467163 0.000000
12.953506 -18.838776 6.770645 0.445389 -0.786736 -0.427405 0.000000
11.544059 -18.945623 5.708927 0.345319 -0.814998 -0.465331 0.000000
9.392963 -20.365873 7.220390 0.226786 -0.905045 -0.359807 0.000000
6.351665 -20.886480 6.064565 0.359535 -0.826479 -0.433206 0.000000
4.379126 -21.049278 5.186616 0.182520 -0.885619 -0.427043 0.000000
2.410758 -22.786047 6.577810 0.427907 -0.902341 0.051724 0.000000
1.318622 -23.229177 6.517163 0.355879 -0.876748 0.323518 0.000000
0.706696 -23.283407 6.300602 -0.281930 -0.888249 0.362668 0.000000
0.435639 -23.135000 6.261164 -0.774279 -0.510776 0.373631 0.000000
-0.984969 -21.871508 5.352808 -0.418330 -0.868700 -0.265257 0.000000
-5.382997 -20.810312 5.158908 -0.348186 -0.783183 -0.515162 0.000000
-16.340250 -17.458384 6.255038 -0.502864 -0.819911 -0.273631 0.000000
-18.527166 -15.236577 5.681941 -0.780148 -0.599046 -0.180312 0.000000
-25.688461 -4.279384 6.367517 -0.909307 -0.407498 -0.084302 0.000000
-27.292933 -1.048890 6.836798 -0.880480 -0.456009 0.129658 0.000000
-28.024406 0.798746 7.157468 -0.810742 -0.434373 0.392451 0.000000
-28.077995 0.859936 6.634758 -0.679654 0.223522 -0.698648 0.000000
-28.797094 2.472826 6.895414 -0.555413 -0.072584 -0.828401 0.000000
-29.458900 4.603322 6.935083 -0.937996 -0.269616 0.217876 0.000000
-29.797607 6.510529 7.027883 -0.978182 -0.042415 0.203374 0.000000
-29.882729 7.678492 6.879847 -0.977056 -0.044690 0.208243 0.000000
